ply
format ascii 1.0
element vertex 1165
property float x
property float y
property float z
property uchar red
property uchar green
property uchar blue
end_header
-0.237688 -0.129067    1.9975 74 74 74
 0.211096 -0.490487   1.94648 53 54 46
-0.235981 0.0624026   1.96086 51 45 33
-0.199279 0.0998282   1.93721 51 48 39
-0.196893  0.161303   1.93258 105 99 85
-0.0829842   0.220789    1.81897 70 63 47
-0.415331 -0.076983   2.06309 127 122 93
-0.0223013  -0.149835    1.93042 54 39 20
  0.147317 0.00590436    1.83547 122 112 87
-0.258901  0.163018   1.95815 120 117 108
-0.412713 -0.131892    2.0611 221 235 238
-0.0417081   0.215457    1.80392 82 75 56
0.0401949  0.120785   1.85803 113 107 95
-0.17587 0.124343  1.88292 76 73 64
-0.0117172  -0.150887    1.92742 63 54 47
 0.178547 0.0178132   1.82108 104 94 82
 -0.168982 -0.0972396    1.94451 81 74 64
-0.321811 0.0878071   1.98731 97 90 71
0.0342191 -0.154604   1.91149 41 36 30
0.0374846  0.176858   1.79042 55 50 46
 -0.240944 -0.0605057    2.00173 119 116 101
 0.147818 -0.401458   1.95591 166 166 168
-0.227983 0.0647016   1.95592 58 52 40
  0.136343 0.00731573    1.83704 52 41 39
-0.173489  0.133293   1.87906 136 134 122
-0.188042  0.126756   1.89436 114 117 110
-0.269948 -0.365422   2.09373 76 59 43
 0.05644 0.170359  1.77857 36 35 33
0.0272459 0.0323738   1.87356 111 113 110
-0.286034 0.0527823   1.97673 162 152 151
-0.0793726   0.129385    1.91253 10 10 10
-0.350321 0.0521646   2.00048 72 74 69
 0.216855 -0.178447   1.83502 58 57 65
-0.201089 -0.114818   1.98398 58 56 44
-0.188007 -0.145819   1.96031 107 100 84
 -0.0722818 -0.00387601      1.9123 58 53 49
-0.196685  0.166317   1.93115 105 99 83
-0.105336 0.0912842   1.93568 49 50 52
-0.329415 0.0437521   1.99595 55 55 45
-0.344408 -0.256143   2.09122 147 151 163
-0.0688555 0.00378219    1.91125 154 150 149
0.223295 -0.18144  1.82379 67 66 72
-0.202329  0.144883   1.94269 40 42 31
-0.0286713 0.00520403    1.89935 60 51 44
-0.0555188   0.232482    1.80823 69 60 45
 0.0362599 -0.0207214    1.86904 37 34 29
-0.0266564   0.233534    1.79653 82 74 63
-0.270278 0.0842706   1.97649 102 106 92
-0.194418   0.05424   1.94378 122 118 107
-0.101068  0.237534   1.82272 68 62 48
0.0404254 -0.339878   1.94056 136 130 118
-0.192254 -0.139396    1.9598 48 43 37
0.0395158 0.0311092   1.84566 103 100 93
-0.179466  0.120307   1.88522 61 60 55
0.0273215 0.0139554   1.88121 115 108 92
-0.428589 -0.150256   2.08115 140 171 199
0.0418634 -0.355509   1.94675 135 128 118
-0.205476 0.0426713   1.95441 104 100 88
-0.0454975   0.212137    1.80456 79 80 66
-0.389996  -0.49228    2.1582 72 80 67
-0.135621  0.250268   1.83764 63 50 42
-0.0936862   0.219048    1.82121 43 40 33
  0.19448 -0.107594   1.86268 59 57 44
-0.209872 0.0840842   1.94467 115 107 94
0.0185673  0.234836   1.78561 23 23 23
 0.0628751 -0.0876951    1.86722 118 112 100
-0.356271 -0.250634   2.08631 96 105 114
-0.199454  0.158387   1.94124 112 102 90
0.0392217 0.0966195   1.86154 96 97 81
-0.142193  0.161739   1.90722 88 79 70
 0.232706 -0.417488   1.89173 133 130 121
 0.039882 -0.140665   1.90507 100 97 78
0.0535413 -0.523051   2.01086 60 64 47
 -0.300523 -0.0850893    2.03155 55 60 64
-0.282781  0.120033   1.97464 42 35 29
  0.13778 0.0381597   1.84306 69 63 49
0.0595668  0.212552   1.76029 97 99 78
-0.0646015   0.217941    1.81217 84 76 53
0.0364185 0.0574333   1.86606 119 115 104
-0.236533 -0.108446   1.99339 131 127 115
 0.194873 0.0256419    1.8125 123 120 105
0.0675312  0.172809   1.78187 107 109 87
 0.255027 -0.215018   1.81337 110 133 147
-0.201611 0.0105426    1.9553 82 76 62
0.0349825 0.0199096   1.87549 117 119 105
-0.0586409   0.267455    1.80285 137 139 138
 -0.380036 -0.0648412    2.01607 125 123 111
   -0.183505 -0.000108573      1.92216 34 30 21
-0.0354566   0.244688    1.80023 57 54 47
0.0314725 0.0196013   1.87712 175 159 133
0.0353472  0.100131   1.86232 75 68 52
 0.247325 -0.440326    1.8809 76 79 84
 0.175658 -0.130076   1.87445 69 62 52
-0.239221 0.0596202   1.96225 107 96 78
  0.246442 -0.0974143    1.80228 100 96 93
-0.362382 0.0425707    1.9889 128 130 117
  0.206145 -0.0717437    1.83281 98 99 93
-0.351213 -0.104158   2.03552 27 27 27
0.0936089   0.21022   1.75686 47 46 44
  0.059664 -0.0262604    1.84568 116 111 91
-0.128819 0.0336421   1.92605 45 44 40
 -0.238421 -0.0770391    2.00732 64 61 56
-0.364795 0.0661822   1.97838 112 108 97
 0.170815 0.0313471   1.83175 95 96 82
0.0182981  0.124522   1.88083 105 103 90
-0.338891  -0.39478   2.11965 142 146 155
-0.168345  0.199908   1.86013 60 59 54
0.154039 0.130006  1.81417 79 86 68
0.0308485 0.0158691   1.87881 73 73 73
-0.109284   0.23875   1.82524 92 84 73
-0.392001 -0.184806   2.06342 60 70 72
-0.333322  0.134527   1.98214 97 100 89
 -0.286331 -0.0715235    2.02136 79 80 84
 0.149952 0.0993079   1.81916 77 77 65
-0.142022  0.114443   1.91721 96 94 82
0.0294477 0.0460842   1.87069 121 118 103
-0.250629  0.162814   1.96004 75 71 62
 -0.384065 -0.0895382    2.02414 123 124 110
-0.142196  0.122743   1.92001 50 43 35
 0.226253 -0.286229   1.86126 180 185 191
-0.134376  0.225336   1.83551 86 75 57
 -0.377669 -0.0578177      2.015 77 73 62
 0.172048 -0.157465   1.86644 55 56 50
 0.214883 -0.269111   1.89858 168 173 169
-0.309267  0.047048     1.988 133 130 115
   0.219102 -0.00554716     1.81057 57 57 47
-0.2191  0.2453   1.865 81 79 66
-0.104666 -0.118964   1.95409 63 62 57
0.0449833 -0.020289   1.85157 95 80 57
 0.162627 -0.169935   1.86711 61 54 36
-0.266152 0.0533724   1.97646 105 101 76
   0.102074 -0.00232922     1.85434 52 47 43
0.207355 -0.03845  1.82003 42 39 32
-0.119753 0.0386337   1.92214 120 112 99
-0.162295   0.19654   1.85842 94 96 83
-0.359709 -0.237129   2.06568 70 69 67
 0.226398 -0.261152   1.85502 170 169 177
 0.171883 -0.094722   1.86842 15 18 27
-0.103842 -0.108943   1.95538 123 123 115
-0.00546133   -0.117955     1.92471 142 138 126
 -0.272252 -0.0725606    2.00009 128 126 113
0.00675423  -0.127269    1.91944 52 47 43
 0.209708 -0.290039   1.90863 126 124 111
  -0.171858 -0.00333902     1.91914 115 106 89
 0.143743 -0.277268    1.9298 125 123 111
0.0119163 0.0139892   1.88265 87 85 72
-0.315521 -0.431117   2.11686 85 80 74
  -0.113955 -0.00321424     1.92638 123 114 107
-0.138959 -0.393378   2.04911 78 83 138
0.0267564 -0.416409   1.99344 85 93 96
-0.225502 -0.117781   1.99386 49 46 39
0.0375963 -0.121456   1.91065 87 99 111
  0.24701 -0.126104   1.81006 120 128 139
-0.207484 -0.370916   2.06664 48 44 35
 0.181151 -0.193495   1.86302 124 117 98
 0.237937 -0.128818   1.81413 129 132 113
-0.100663 -0.097272   1.94796 73 65 62
0.218134 -0.17526  1.83795 39 39 31
 0.166697 -0.465637   1.95774 90 92 105
-0.230709 -0.421556   2.08854 133 137 146
-0.0909652  -0.143491    1.95079 66 55 49
 -0.279955 -0.0960234    2.00856 125 122 107
 0.209526 -0.332222   1.91962 118 114 105
 0.212042 -0.267531   1.90112 88 90 105
 0.217079 -0.165921   1.84987 42 41 36
 0.249548 -0.150352   1.80911 51 54 59
0.154069   -0.159  1.87182 56 49 33
-0.388681 -0.361669   2.09905 138 144 158
 0.185152 -0.129378   1.85094 116 117 112
-0.346915 -0.353251   2.11591 149 155 153
0.237022 -0.26767  1.84874 130 126 115
  0.29118 -0.146969    1.8244 118 122 108
 0.137694 -0.473482   1.96873 129 124 102
 0.229306 -0.137831   1.81797 112 104 93
 0.148973 -0.473725   1.96427 125 119 105
  0.194808 -0.0124554    1.82085 86 86 84
-0.352484 0.0589822   2.00042 106 76 50
-0.0602241   0.217547    1.81097 84 78 56
-0.0118116   0.210267    1.79452 67 60 54
-0.303943   0.12123   1.98614 89 87 72
-0.248716 0.0929855    1.9662 125 122 115
 0.129309 0.0346223   1.84411 48 43 39
-0.269961 0.0539424   1.97733 103 102 82
-0.313691   0.12104   1.98625 84 82 59
 0.069854 -0.185559    1.8786 132 129 122
-0.0122185  0.0129339    1.89222 129 123 107
-0.0562786 0.00202057    1.90717 128 142 155
0.0295646 -0.191272   1.89193 104 117 136
0.0120397 0.0392578   1.88517 106 101 81
-0.139873 0.0468836   1.92723 117 117 105
-0.0646876   0.141681    1.84357 120 116 105
-0.143978  0.038573   1.92967 126 126 126
  0.228323 -0.0613865    1.82471 173 168 149
  0.01052 -0.015708   1.88844 107 101 87
  0.12732 -0.018187   1.84907 173 157 124
 0.124915 -0.146471   1.88216 17 18 20
-0.142533 0.0305716   1.93146 90 81 66
   0.172972 -0.00911818     1.82875 106 105 103
 -0.170736 -0.0544209    1.93742 141 135 121
-0.345404 -0.391907   2.12757 175 175 167
-0.671316  0.355838   2.27601 25 26 28
   0.249902 -0.00424568     1.78011 178 170 157
-0.779735  0.260989   2.19322 204 204 204
-0.824464  0.303718   2.07272 81 98 114
-0.38778 0.177246  1.94504 208 201 193
-0.553226  0.563571   2.69084 109 108 87
-0.192405  0.306004   1.82886 129 117 101
-0.26347 -0.19463  2.05468 145 146 141
-0.594169  0.527326   2.41358 39 43 28
-0.659015  0.397296   2.28185 75 74 70
-0.662644  0.331011   2.37779 82 106 132
-0.188893 -0.190183   1.98582 87 86 84
-0.384612   0.46227   1.85872 162 162 170
-0.604578  0.526131   2.40149 43 36 28
-0.0267187   0.183572    1.82114 147 136 118
0.210946  0.29393  1.69738 142 129 120
-0.374039 -0.368985   2.09766 116 118 117
-0.739106  0.365439   2.04269 49 49 49
-0.721957  0.396707   2.01129 118 115 100
-0.206528 -0.452354   2.08285 132 135 150
-0.612325  0.520968   2.40072 40 39 37
-0.732698    0.3536   2.01366 90 91 85
 0.146845 -0.453044   1.96448 161 166 170
0.0718376  0.436367   1.71359 80 79 77
-0.728442  0.355734   2.02736 118 128 127
-0.183379 -0.379978   2.03188 159 161 176
0.0571762  0.282663   1.74637 162 155 149
-0.392374  0.341454   1.89435 191 198 206
-0.147467  0.101704    1.9163 96 89 79
-0.176808  0.428035   1.79289 115 113 100
-0.371356  0.391916   1.87903 187 188 192
-0.397781  0.353742   1.89484 138 133 129
-0.381144  0.365844   1.88504 185 185 177
-0.0293151   0.396462    1.82199 121 107 81
0.224811 0.340823  1.67453 168 160 149
-0.0452265  0.0821136    1.90919 60 71 91
0.121521 0.150043  1.80222 52 58 56
 0.235316 -0.161954    1.8247 104 104 94
0.145269 0.418761  1.74489 90 65 43
-0.594842  0.631325   2.46949 8 8 8
-0.569393  0.593724   2.45631 97 80 72
-0.164852 -0.397679   2.06305 108 106 94
-0.733907  0.479096   1.99214 117 115 100
-0.708491  0.489317   2.03339 103 95 72
-0.627247  0.473034   2.98899 15 19 28
-0.651652  0.501618   2.26836 96 93 88
-0.671282  0.535845   2.20707 51 42 33
-0.752084  0.378005   2.00878 149 154 148
-0.656873  0.520389   2.22052 19 20 15
 0.260678 -0.139526   1.83386 95 88 72
-0.710007  0.499123   2.00007 24 27 34
 0.267216 0.0343612   1.77783 90 82 79
-0.685098  0.503388   2.01653 21 18 27
-0.739877  0.493613   1.98068 15 17 14
  0.331219 0.00506027    1.88969 69 63 63
-0.725535  0.394891   2.05857 78 83 86
-0.408766  0.329754     1.912 165 159 147
-0.542129  0.616476    2.6028 135 126 111
-0.360055  0.495545   1.85294 72 58 47
-0.588646  0.460404   2.48909 29 32 47
-0.542101  0.645813   2.59977 87 88 82
-0.607453  0.486505   2.43303 73 59 50
-0.397036  0.266654   1.91329 44 44 46
-0.373916 0.0430724   2.00108 148 150 149
 0.144395 -0.459686   1.96685 141 129 103
-0.285673 0.0162924   1.98067 97 94 101
-0.400456  0.115944   1.98484 122 118 119
-0.395389  0.587515   3.06528 102 97 91
-0.151558 -0.119279   1.96034 83 65 51
0.0401827   0.10132   1.85922 132 124 121
 0.219751 -0.435764   1.90037 53 41 27
-0.195212  0.518942   1.80459 93 94 88
-0.380265  0.510125   1.85422 68 76 63
0.0855629 0.0160718   1.84904 109 105 102
-0.142076  0.156938   1.90845 119 112 86
-0.348139 -0.265466   2.09101 132 132 130
-0.243184   0.43056    1.8805 142 135 125
-0.278627  0.450645   1.88505 125 117 115
0.0801402 0.0962381   1.81697 153 154 198
0.0407183 0.0768861   1.86044 164 163 159
-0.264592  0.176056   1.93176 99 86 70
-0.400383  0.335534   1.89925 147 141 145
-0.39063 0.467762  1.86946 166 158 169
0.066105 0.163971  1.78832 118 117 115
0.0322116  0.477992   1.73044 121 112 105
-0.0698865   0.338623    1.81537 81 73 52
0.219118 0.126139  1.74331 127 124 115
0.0163248  0.406533   1.76582 87 81 57
-0.286317  0.415291    1.8967 51 48 43
-0.336606 -0.128993   2.02548 99 100 154
-0.0218959 -0.0984177    1.93102 111 108 117
  -0.362983 -0.00536761     1.98876 120 119 127
0.186786 0.331562  1.71343 100 90 81
-0.200869  0.481593   1.81838 62 56 58
0.0351052  0.396727   1.73598 153 140 124
 -0.27723 -0.403837   2.09679 75 83 102
0.189294 0.389025  1.73284 116 110 88
 0.101771 -0.395259   2.17508 254 253 248
0.0276202 -0.178812   1.91973 70 68 56
0.0254621  0.208235   1.78395 142 142 170
-0.221892  0.509161   1.85256 145 140 136
 0.100391 -0.405844   2.17643 248 248 250
-0.213086 -0.179622   2.01609 137 138 142
-0.169039  0.439847   1.79052 108 102 102
-0.359147  0.526081    1.8788 110 119 118
 0.24578 0.270872  1.67759 149 144 141
-0.244029  0.404762   1.87805 103 96 90
-0.0289214    0.42273    1.81666 126 124 103
-0.0886395   0.408279    1.83217 83 71 57
0.00441429   0.486964    1.77913 107 105 93
-0.342646  0.421356    1.8761 148 142 130
-0.277777  0.453074   1.88518 124 117 109
0.208571 0.461568  1.70914 108 96 82
 0.203788 -0.248007   1.93099 38 37 42
-0.249489  0.412499   1.88445 122 118 107
-0.418599 -0.128848   2.07653 254 253 249
-0.200688  0.440858   1.84309 111 113 102
-0.203039  0.478117   1.82669 74 66 55
 0.129549 -0.176278   1.87674 69 63 47
-0.13283 0.413232   1.8232 103 85 61
 0.101742 -0.172602   1.88375 52 48 37
 -0.35084 -0.196585   2.07575 151 133 111
 0.162155 -0.175245   1.86772 108 102 80
-0.320726  0.215333   1.91755 102 87 64
-0.308662 -0.429432   2.11477 137 147 156
-0.22412  0.47888  1.86007 139 131 120
-0.207193  0.329434   1.84355 171 166 170
-0.284794  0.448499   1.89286 102 95 89
0.216534 0.397921  1.69353 82 83 77
-0.353167  0.492002   1.86021 100 87 71
-0.0921354   0.399679    1.83042 109 103 79
-0.0183422    0.15868    1.87517 55 45 54
-0.385832   0.44942   1.86378 161 164 169
-0.0153225   0.132306    1.87374 139 129 104
0.0139335  0.476163   1.76869 76 72 61
-0.202986  0.513955   1.84412 106 100 88
-0.221803  0.455168   1.86855 133 128 124
-0.290182  0.122677   1.97709 114 113 95
0.216131 0.379093  1.68721 99 91 80
0.137707  0.39358  1.74924 124 118 96
-0.073888  0.380155   1.83233 79 68 50
-0.192669 0.0429262   1.94628 116 94 70
-0.10531  0.15352  1.91667 107 109 104
-0.306369 0.0384156   1.98959 155 134 113
0.212954 0.364329   1.6939 163 152 148
-0.249843  0.444241   1.87599 125 118 108
-0.267676  0.385229   1.88518 59 49 47
-0.325485  0.409277   1.88231 122 119 112
-0.358154  0.472927   1.86732 156 155 160
 0.118882 -0.161051    1.8827 120 111 94
-0.272841 -0.279743   2.07188 172 176 185
-0.343533  0.464798   1.87627 194 187 168
-0.076446  0.368137     1.828 77 69 50
-0.271853  0.483137   1.87539 97 92 72
-0.100686  0.431304    1.8267 117 109 88
0.156217 0.434463   1.7341 116 106 97
0.0347493  0.399984   1.74253 104 96 94
-0.0795873   0.412337    1.83951 124 117 98
-0.205218  0.433208   1.83355 126 113 104
-0.327022  0.486236   1.88885 128 118 109
-0.346383  0.452017   1.87539 76 73 68
-0.152066  0.387575   1.80767 195 190 187
-0.251707  0.486693   1.86665 111 108 103
-0.29139 0.464998  1.88686 117 108 103
-0.393575  0.140564   1.98246 118 118 118
-0.351696  0.475785   1.86883 161 154 148
-0.266534   0.42269   1.88952 115 111 108
0.178804 0.370331  1.74468 128 122 106
 0.209529 -0.175153   1.85037 67 63 64
 0.225339 0.0854219   1.78672 171 167 158
 -0.425575 -0.0789055    2.06879 182 191 200
0.203693 0.224469  1.71332 182 179 174
-0.380626 -0.379037    2.1033 67 68 88
-0.431205  0.154687   2.03283 87 83 110
0.218533 0.158507  1.73028 151 151 141
-0.234776  0.440857   1.87705 146 143 136
 -0.400388 -0.0563976    2.04465 161 164 157
-0.273401 -0.255302   2.06978 144 138 126
-0.389887  0.427958   1.87056 119 117 120
 0.225315 -0.457017   1.93808 39 30 31
0.223918 0.077442  1.78898 176 169 163
 0.178654 -0.467427   1.95103 133 125 112
 0.216149 -0.550832   1.98065 61 78 98
 0.230841 -0.178382   1.82209 146 116 106
 0.222976 0.0786374   1.75888 197 194 185
0.210264 0.098791  1.80981 150 145 139
0.220706 0.439804  1.67048 48 42 30
0.206818 0.413964  1.72263 42 38 27
-0.40017 0.258388  1.92332 84 84 86
0.125451 0.201508  1.74828 139 128 108
 0.186922 -0.471889   1.95545 97 88 83
 -0.426728 -0.0830808    2.07009 142 171 185
 0.210118 -0.309401   1.89885 82 81 99
-0.302605 0.0757276   1.98351 157 157 145
0.0205119  0.178906   1.79887 114 111 96
-0.0326558   0.303143    1.78266 133 123 111
-0.0941123   0.393982    1.82861 83 73 63
-0.0464083     0.3759    1.83358 68 61 42
-0.189678  0.124146   1.92534 129 118 98
0.096755 0.328258  1.73025 197 192 189
-0.214696  0.420786   1.84962 124 122 109
-0.0501594   0.374138    1.83588 97 95 74
0.0993321  0.144371   1.82818 129 127 132
-0.0639504   0.369142    1.83447 76 65 47
 -0.235778 -0.0756203    2.00605 18 8 9
-0.292841 -0.421413   2.10994 123 117 101
-0.128569  0.477336   1.80039 98 89 84
-0.270119 -0.149035   2.02893 223 161 102
  0.214932 -0.0429072    1.80685 108 107 102
0.142525 0.281228  1.72412 174 173 168
   0.204017 -0.00331135     1.82021 111 104 94
 -0.161544 -0.0269959    1.92356 111 109 96
 -0.168958 -0.0350554    1.93116 173 173 171
 0.183108 -0.472708   1.96516 117 60 40
  0.215679 -0.0464476    1.82061 84 88 91
 0.122096 -0.104262   1.90047 105 112 118
0.294429 0.379137  1.70059 122 118 109
-0.166388  0.172721    1.8651 204 204 212
0.0307558  0.408225   1.74389 105 93 77
0.207229  0.47685  1.71429 80 73 55
-0.203912  0.343452   1.83851 159 161 160
0.223577  0.47702  1.65911 79 63 48
 -0.360503 -0.0282483    2.02115 85 92 100
-0.318359   0.52262   1.87149 132 127 121
-0.370803  0.150663   1.94495 118 101 91
0.211788 0.154976  1.80491 41 42 44
 0.274358 -0.138129   1.81484 85 82 101
0.0187307 -0.137467   1.91665 114 106 87
-0.565798  0.601969   2.61199 26 32 44
-0.201414  0.465387   1.82875 137 126 122
-0.47279 0.546745  2.72016 87 85 72
0.0563994  0.416677   1.71375 126 96 70
 0.229528 -0.355831   1.89089 140 139 135
-0.409914  0.109481   2.01285 199 203 215
-0.329952  0.445794   1.88843 55 56 51
  0.0979143 -0.00627378     1.85527 99 81 57
-0.442985  0.521781   3.56093 255 255 255
-0.183443    0.4476   1.81397 115 99 63
0.127931 0.393915  1.75357 139 123 98
-0.363961  0.360896   1.88416 164 158 144
-0.544029  0.583805   2.71027 24 23 29
-0.170353 -0.490965   2.08381 113 112 94
-0.30982 0.482799  1.88453 103 104 99
0.0586155  0.407856   1.71666 132 128 129
-0.364968   0.37064   1.88358 171 163 152
0.288174 0.392465  1.69701 145 137 126
-0.144359  0.402706   1.80062 126 118 99
  0.0385 0.399174  1.73632 138 134 123
-0.496045  0.661022   2.71651 74 71 62
-0.197629 -0.436744   2.06957 145 137 116
-0.194327 -0.378935   2.06297 67 69 82
    0.25458 -0.00196483     1.77043 171 178 224
-0.385989 -0.437351   2.14114 111 118 128
-0.20867 0.462941  1.84138 81 74 66
-0.157302 -0.405418   2.04926 195 195 185
-0.194404 -0.192574   2.00255 181 183 196
0.0666307  0.307073   1.74116 164 156 137
  -0.377033 -0.00327182     1.99906 192 193 197
0.154355 0.459234  1.69918 109 90 57
0.226489 0.251361  1.71366 166 172 188
  0.69905 0.0138166    2.8889 121 119 124
0.140461 0.384155  1.74664 98 85 66
0.00113481   0.405696    1.79617 72 54 44
-0.769525  0.532336   1.96729 185 166 149
 0.637678 0.0779156   2.82649 105 105 103
-0.110859  -0.45527   2.26006 96 91 85
-0.750851  0.426442   1.99243 126 126 124
-0.714757  0.525195   1.99481 49 21 17
 0.705969 0.0311937   2.82532 254 250 241
-0.649613  0.550216   2.25846 116 110 96
-0.656832  0.520401   2.22051 19 20 15
-0.755343  0.301406   2.05414 53 75 98
-0.339826  0.493827   1.86014 93 81 65
   -0.77 0.394624   2.0083 72 74 73
-0.741152   0.37655   2.04628 126 126 116
-0.41658 0.130434  1.98013 125 135 137
-0.669059  0.469864   2.21597 86 79 50
 0.345156 -0.104594   1.96622 74 72 57
-0.782178  0.445961   1.99724 160 157 150
0.616698  0.12863  2.67852 30 31 35
-0.257595  0.472687    1.8735 75 67 64
0.0207934 -0.106837   1.91241 82 68 55
-0.690145  0.342634    2.2224 24 32 43
-0.214991  0.415737   1.84149 81 77 65
-0.620539  0.375129   2.45385 19 19 21
 -0.13589 -0.216591   2.01545 137 134 119
-0.689329  0.360927   2.19292 117 129 127
0.131462 0.398368  1.77387 112 78 50
-0.696642  0.326823   2.14453 23 23 25
 -0.13685 -0.300045    2.0357 116 109 91
0.262162 0.275423  1.69966 136 129 111
-0.72772 0.414081   2.0921 49 55 51
0.0835338 -0.209271   1.91671 86 76 75
-0.0104577  -0.100964    1.93834 35 36 31
 0.082071 0.0962744   1.83765 113 103 78
-0.061625  0.383027   1.83552 79 61 37
0.631423 0.130353  2.65988 14 19 25
0.0318667  -0.11307   1.91063 98 100 95
0.625775  0.11899  2.66567 87 90 81
-0.652557  0.481872   2.26464 69 65 40
-0.130476 -0.173301   1.98313 53 50 43
0.0351971 -0.437345   2.00226 69 73 74
-0.163426 -0.242902   2.00714 119 117 104
-0.196472  0.137503   1.89408 98 91 75
-0.156163 -0.407074   2.05761 135 132 123
-0.650681  0.379622   2.31885 33 32 27
-0.787216   0.35161   2.01395 142 143 129
0.0222185 -0.124963   2.16132 243 238 235
-0.717854   0.38617    2.0827 172 175 158
  0.263497 -0.0978835    1.82402 124 113 91
-0.702128  0.392754   2.18691 67 67 57
 -0.10197 -0.359038   2.21794 114 116 111
-0.672705   0.39275   2.26761 95 95 95
0.271282 0.166687  1.75649 161 155 139
0.212298 0.131723   1.7985 123 116 106
 0.234079 -0.395652   1.88841 166 170 173
  0.05263 -0.365179   1.95016 134 132 137
 0.288513 -0.132412   1.82744 48 44 35
0.0360494 -0.447494   2.00973 76 73 68
-0.439821  0.536027   1.92898 132 146 155
0.0797102 -0.411959   1.97822 127 108 75
-0.659175  0.383903   2.27873 94 95 81
 0.205527 -0.542652   1.96725 117 121 124
0.252697 0.272232  1.69662 159 156 149
 0.26707 0.300271   1.7066 134 120 109
0.0490636 -0.409519   1.95839 85 83 96
-0.198167 -0.412744   2.03722 123 120 111
0.0514305 -0.248685   1.91842 182 182 190
0.27509 0.20831 1.74733 211 203 190
0.311812 0.107951  1.76234 60 49 45
-0.162859 -0.441579   2.07314 155 142 108
0.0351533 -0.458487    2.0119 127 125 146
-0.107423 -0.397178   2.22045 126 117 102
-0.66208  0.37466   2.0599 41 40 35
-0.104215  0.372905   1.82172 64 50 37
-0.309094  0.512747   1.87804 151 148 141
 0.253508 -0.423133   1.90254 77 64 56
-0.450693  0.504669   1.91402 43 51 54
-0.705831  0.412056   2.13861 73 70 55
0.271787  0.39616  1.70365 122 106 90
0.161965 0.383211  1.74463 119 114 94
-0.583958  0.584781   2.59961 78 78 76
0.262436 0.057519  1.77704 129 113 100
  0.205632 -0.0642847    1.83639 63 62 70
  0.639451 -0.0254202     2.7311 64 75 81
 0.221856 -0.223038   1.84372 80 72 61
0.218078 0.481509  1.67439 73 69 58
-0.661721  0.377502   2.28847 48 52 55
0.132506 0.395004  1.75444 136 126 116
 0.236624 -0.382997   1.88663 147 149 146
-0.424348  0.409718   1.91789 118 131 139
 0.215434 -0.451124   1.93019 125 125 113
-0.668293  0.375845   2.24968 98 95 88
-0.669423  0.376142   2.25646 106 117 111
-0.0486538  -0.109606    1.95347 42 38 35
0.0439688 -0.445869    2.0143 149 196 212
-0.656604  0.375944   2.35484 23 25 22
 -0.14823 -0.264864   2.02363 138 137 133
-0.456333   0.50895    1.9339 39 42 47
0.0630174 -0.188119   1.88251 78 77 75
-0.643177  0.523715   2.25398 21 16 20
-0.428549  0.507928   1.89734 152 47 64
  -0.182784 -0.00972754     1.92738 211 212 207
-0.137864 -0.275625   2.02166 131 125 111
0.648491  0.24906  2.63294 194 195 189
  0.151488 -0.0566971    1.84771 168 170 169
0.252415 -0.47585  1.92414 148 146 134
-0.645881  0.474656   2.27153 23 20 13
 0.270038 -0.150211   1.83755 200 194 180
-0.656915  0.494733   2.22743 87 79 77
0.0453597 0.0161829   1.84515 181 178 169
-0.647881  0.527867   2.24077 69 63 51
-0.64727 0.396611  2.34079 18 24 22
 0.231075 -0.114475   1.81318 171 171 173
0.0756322 -0.517229   2.01179 254 255 250
 0.226826 -0.496796   1.93804 144 149 155
0.727705 0.342045   1.9676 159 156 165
0.0744339 -0.507115    2.0016 116 117 111
  0.22205 -0.491896   1.93522 79 79 77
-0.459335 -0.030985    2.0445 41 69 90
-0.349711    0.1573    1.9732 168 170 169
-0.299207  0.507133   1.88336 112 103 96
-0.244326  0.421938   1.88273 113 108 104
0.197463 0.415926   1.7254 54 45 38
-0.132802  0.356622   1.80883 118 112 98
-0.368318  0.435452   1.86763 80 73 65
-0.418736  0.168307   1.97683 157 167 176
-0.279599  0.172692   1.91581 34 36 33
-0.263818  0.419361   1.88951 86 81 78
-0.410296  0.200485   1.96576 123 133 134
-0.285997  0.458367   1.88544 116 115 111
-0.0680795   0.286594    1.79604 53 56 49
0.154651 0.133099  1.81049 203 201 189
-0.0930656  -0.345464    2.23007 99 91 80
-0.152785  0.406315   1.80526 110 101 96
-0.128745    0.3609   1.81002 119 108 90
0.154999 0.148573  1.80673 153 146 136
  -0.17216 -0.0267966     1.9322 148 128 103
0.140535 -0.43036  1.96139 140 131 114
-0.184025 -0.394214   2.03425 157 159 171
-0.304827  0.507875   1.88425 87 80 62
0.208522 0.256386  1.70377 53 45 42
-0.209886 -0.261341    2.0597 76 85 82
0.00986237   0.173507    1.86542 138 141 132
-0.266658 0.0274294   1.97597 187 185 188
-0.41771 0.151954  1.97858 139 153 156
-0.170672 -0.219202   1.98774 186 187 191
0.186822 0.400191  1.73393 142 135 117
 -0.128639 0.00986977    1.92991 125 127 116
-0.154661  0.325361    1.8214 143 129 118
  0.147222 -0.0645254      1.853 155 152 143
 0.211365 -0.488472   1.94488 68 70 67
-0.224089  0.478889   1.86046 122 117 95
-0.424545  0.128792   1.98918 146 159 168
 -0.41628 -0.222176    2.0938 120 173 225
0.186848 0.384394   1.7338 122 114 95
-0.0685134   0.327768    1.81155 90 81 66
-0.303994   0.47641   1.89264 130 122 119
 -0.402921 -0.0813016    2.02122 71 73 68
 0.064119 -0.469705   1.98728 155 156 142
0.0534865  0.156282   1.79223 174 171 156
-0.283658  0.467899     1.885 64 56 53
-0.133667 -0.115963   1.96454 131 123 112
 -0.17866 -0.238369   1.99605 139 139 127
0.149192 -0.38688  1.95267 130 125 131
-0.155865  0.436067   1.80028 92 82 81
 0.148586 -0.354324   1.94271 129 127 128
-0.0968302  -0.145882    1.95338 148 139 132
 0.150262 -0.318761   1.93566 124 113 93
0.233768 0.404498  1.65429 80 80 78
-0.427064  0.393276   1.92168 124 137 143
 0.150212 -0.312566   1.93426 138 130 117
-0.201957 -0.496635   2.09911 157 184 214
-0.0757378   0.221985    1.81576 106 90 57
  0.251094 -0.0143891    1.77723 210 202 199
-0.412639  0.503105   1.89279 152 152 126
-0.43244 0.505205  1.89756 151 150 130
-0.020507  0.363676   1.80793 74 70 59
-0.0513735   0.319216    1.80093 133 117 101
0.135922 0.418811  1.74905 130 127 110
-0.173549 -0.374067   2.02652 167 174 184
-0.751642  0.364109   2.01996 121 127 115
-0.112474   0.31791   1.80764 135 131 119
0.00429341  0.0569266    1.90745 119 118 98
-0.328478   0.41438   1.88081 127 125 113
-0.343995  0.485708   1.87333 137 134 129
-0.464169  0.506854   1.90517 162 165 146
-0.271986  -0.19406   2.04879 182 176 176
 0.149624 -0.360402   1.94557 129 125 124
-0.244071 -0.467523   2.10048 129 120 111
0.00676002   0.427028    1.79241 142 127 104
0.179523 0.400849  1.73668 93 85 66
-0.106959  0.421155   1.82584 82 77 57
0.0850966 -0.464942    1.9928 138 114 102
0.142925 0.402927  1.75051 84 72 58
-0.273271  0.427911   1.88725 132 126 126
-0.336769 -0.187609   2.07623 132 132 130
-0.338672   0.44169   1.88352 144 132 106
-0.264455 -0.260169   2.09138 126 118 107
0.0760707 -0.487855   1.99409 51 53 50
-0.390886  0.290569   1.90976 152 147 153
-0.316842  0.483963   1.88466 106 93 74
  0.14507 -0.417354   1.95695 125 117 106
-0.184698 -0.458165    2.0765 35 35 27
-0.362365  0.219696   1.92727 192 188 185
-0.171427 -0.292967   2.00933 137 135 138
 -0.36538 0.0543216   1.98151 143 136 120
-0.156153 -0.341199   2.04673 149 125 97
-0.157705 -0.259271   2.01387 136 127 110
 0.072074 -0.411811   1.97669 44 46 35
-0.236971 -0.408774   2.10044 51 55 67
-0.323847 -0.179224   2.07793 158 166 169
-0.247988 -0.450092     2.095 44 36 33
-0.354715 -0.439456   2.13248 65 65 57
-0.375312 -0.275468   2.07612 170 169 165
-0.228261 -0.434377   2.09127 142 145 136
-0.434374 -0.150381   2.08271 152 168 201
-0.341389 -0.220963   2.08767 47 47 39
-0.350156 -0.404465    2.1237 94 94 92
-0.200215  -0.12878   1.96217 89 80 71
-0.395086 0.0548916   2.01044 111 79 40
0.0384267  0.174127   1.89245 254 254 255
-0.390426 -0.363019   2.14142 178 178 166
-0.247709 -0.132393   2.00872 162 151 133
-0.320752 -0.405325   2.11703 210 208 185
  0.240294 -0.0146031    1.79184 147 139 120
0.0554632 0.0075155    1.8573 202 194 181
-0.176982 0.0289678   1.92077 217 181 131
  0.171324 0.00369715    1.83513 181 178 163
-0.00600443    0.152864     1.87128 114 110 98
    0.1159 0.00366744    1.85075 181 171 162
-0.388688  0.191206   1.92923 147 134 115
 0.0339335 -0.0119858    1.89328 150 139 119
 -0.307795 -0.0301561    2.01847 132 107 53
-0.218033  -0.40504   2.09004 184 185 171
  -0.336101 -0.00710348     2.01426 236 233 226
-0.231377 0.0338045   1.96748 184 175 158
-0.171571 0.0877156   1.90027 162 138 66
-0.412854  0.109932   2.02821 149 138 120
  -0.25149 -0.0150673    1.98474 254 254 246
  -0.28215 -0.0124827    2.00175 221 217 206
   0.202207 0.000859734     1.81794 82 69 50
-0.145125 -0.208856   2.00168 218 214 202
-0.203502 -0.019018   1.95884 214 208 194
 -0.201439 0.00564259    1.95644 161 153 134
-0.408249 0.0695347   2.03588 157 148 131
-0.146492 0.0226397   1.92973 125 115 116
  0.224762 -0.0435833    1.79397 103 92 74
 0.114963 0.0485335   1.84366 182 175 157
 0.0394908 -0.0235149     1.8488 148 111 67
  0.267397 -0.0344061     1.7945 33 26 18
-0.387836  0.177304   1.94116 133 106 59
-0.194025 -0.216309   2.00667 166 157 140
-0.180731 -0.406315   2.03529 176 181 151
 0.204561 -0.235051   1.89825 254 254 255
 0.0898361 -0.0483063    1.87665 252 252 244
-0.198714 -0.434041    2.0757 189 188 168
0.315088 0.215099  1.73257 116 114 99
-0.374394  0.222098   1.92868 16 7 0
  -0.43347 -0.0901569    2.07526 5 1 2
-0.160932 -0.362648   2.04032 81 72 57
-0.133509 0.0514049   1.92683 173 162 144
-0.28382 0.099654  1.97441 116 104 88
-0.204943 -0.195071   2.03305 255 255 253
0.0446973 -0.482167   2.01439 143 117 60
-0.366009 0.0357317   1.98604 118 94 58
-0.325698  0.225825   1.92427 255 254 255
0.0604447  0.354268   1.73387 115 104 86
 -0.40281 -0.380649   2.12073 150 157 150
0.317719 0.247337  1.72573 108 108 96
 0.146555 -0.466638   1.96743 204 203 198
-0.198374 0.0706123   1.92657 190 181 164
-0.323684  0.157242    1.9828 171 160 142
-0.337299 0.0366344    1.9984 154 143 125
0.246122 0.049455  1.76077 125 116 99
 -0.229839 -0.0629025    1.99631 125 118 102
0.0729478 -0.410914   1.96404 134 131 124
-0.347291  0.089459   1.98661 66 57 42
  -0.3489 0.0536779   1.99881 48 40 29
-0.423556 -0.129556   2.07007 230 224 212
-0.346113  0.015403   2.01034 53 45 34
-0.181446 -0.203403   1.98425 255 255 253
 -0.286819 0.00854006    1.98645 139 143 142
 0.266837 -0.434195   1.92182 67 71 82
-0.149989 -0.136123   1.96576 98 85 66
 0.036539 -0.501681   2.02144 10 10 12
-0.262187 0.0834834   1.97989 152 141 123
 0.141279 0.0412675   1.83767 173 162 144
-0.113066 0.0141265   1.92596 201 193 180
 0.20916 -0.22296  1.87387 135 124 106
-0.417473 -0.144177    2.0664 47 45 92
-0.171695  0.308805   1.82667 119 106 87
-0.169805 -0.035764   1.93308 185 178 162
-0.211177 0.0853966   1.94639 183 175 156
-0.0455205   0.185934    1.82831 212 201 183
 -0.22297 0.0877414   1.95153 158 147 127
-0.142714 -0.378273   2.04487 123 99 51
-0.361501  0.091798   1.97938 157 146 128
-0.189022  0.117372   1.88637 195 186 171
 -0.335072 -0.0967292    2.03908 41 24 4
-0.181092 -0.378514   2.02296 185 185 177
  0.101271 -0.0107624    1.86048 180 141 86
 0.245879 -0.129219   1.81422 152 144 125
-0.00351079    0.160911     1.88595 1 0 0
 -0.240478 0.00405178    1.97308 124 94 56
-0.176771  0.133405   1.88412 189 180 163
0.324744 0.283656  1.71976 50 34 11
 0.246234 -0.105121    1.8077 152 144 125
 0.237956 0.0891219   1.74843 115 103 87
 0.0249249 -0.0150199    1.88656 123 112 90
0.0673389 -0.501666   2.00097 85 89 92
0.0551454  0.110254   1.81135 177 169 150
0.0539486  -0.39987   1.95555 214 210 199
-0.362601 0.0703241   1.97689 164 156 137
 0.236198 -0.359687   1.87551 201 197 185
 -0.410738 -0.0319493    2.05929 163 154 137
-0.180566 -0.330062   2.01304 181 174 156
-0.263881 -0.373089   2.08994 138 134 125
0.0496265 -0.513839   2.01496 195 160 104
0.153001  0.27441  1.72772 112 99 82
    -0.32028 -0.000252832      2.00918 241 237 228
  0.23475 -0.534716     1.944 213 212 181
-0.0421982   0.256871    1.80005 145 106 63
 0.133083 -0.445769   1.96991 225 221 209
 -0.367932 -0.0327625    2.00638 158 150 131
0.0526819  0.411021   1.72352 58 40 20
-0.179712 -0.307684   2.01033 194 186 173
0.302791 0.104596  1.75873 61 54 62
0.245929 0.237065  1.70002 33 20 4
 0.204991 -0.154471   1.85464 62 35 8
 0.0616277 -0.0968278     1.8711 188 179 162
  0.154513 -0.0161488    1.84378 170 159 139
0.230793 0.166051  1.72995 110 102 83
 0.131443 -0.146588   1.89042 129 112 105
 0.143727 -0.407538   1.95502 211 174 104
-0.11087 0.108589  1.93355 17 9 6
-0.110242  0.126037   1.92578 14 13 9
0.314706 0.113589  1.75964 117 127 102
  0.247965 -0.0621212    1.79442 142 134 115
-0.200956  0.280964   1.85633 218 212 198
  -0.235677 -0.00870751     1.98236 248 247 242
0.315587  0.13322  1.75523 128 129 121
-0.0600379 0.00766682    1.91278 205 197 184
 -0.136772 -0.0810578    1.96234 190 158 111
  0.109258 -0.0964999    1.89716 23 15 4
-0.212014 -0.405421   2.07622 134 113 50
 -0.212274 -0.0122013    1.97423 237 234 227
 0.221469 -0.424977   1.89669 189 191 180
0.0696748  0.289342    1.7492 43 31 19
 -0.190701 -0.0202892      1.932 172 165 146
 0.109856 -0.149565   1.88707 102 68 30
0.0699825  0.277607   1.75233 35 25 13
 -0.279316 0.00718016     1.9827 138 127 107
 -0.381406 0.00376332    1.99969 143 135 116
-0.210479  0.384321   1.82731 111 100 82
0.0168389 0.0295784   1.88347 194 185 168
-0.299428 0.0800776   1.98309 160 152 133
 0.247279 0.0318631   1.76505 134 126 107
0.0525024 -0.500406   2.00532 85 70 37
-0.177991 -0.181921     1.983 191 190 185
-0.269867 0.0959065   1.97368 142 131 113
-0.337517 0.0797178   1.99247 155 121 84
-0.270449 -0.199367   2.05195 183 174 159
  0.20151 -0.106041   1.85635 140 129 107
-0.168549 -0.141449   1.95465 175 164 144
 0.112543 -0.120013   1.88361 237 233 222
-0.0820754   0.104439    1.92354 221 218 209
 0.212687 -0.307415   1.91365 190 190 180
 0.0961592 -0.0562348    1.87801 224 225 219
 -0.42813 -0.146502   2.07987 111 98 66
-0.00755297    0.118357     1.89518 212 208 197
-0.354393  0.152124   1.96467 184 177 159
-0.0198206   0.211625    1.80186 187 176 158
 -0.305007 0.00967437    1.98984 101 90 70
   0.2154 -0.250755   1.89995 197 188 173
0.316203 0.145261  1.75313 128 133 103
-0.270036 -0.212666   2.05511 179 173 159
 0.287264 -0.439181   1.93136 199 195 192
  -0.33537 -0.0381197    2.03242 215 209 195
-0.242023  0.430894   1.88568 89 66 34
-0.189137 -0.269465   2.00798 171 162 145
-0.188463    0.2969   1.82123 102 73 41
-0.266087 -0.152942   2.01144 215 209 193
-0.274784 -0.151974   2.01533 209 201 188
-0.338056  0.106553   1.98532 142 134 115
 0.212515 -0.345393   1.92418 196 196 170
-0.0655568   0.215997    1.81535 177 166 148
 0.247937 0.0706478   1.75245 114 105 88
 -0.164858 -0.0167981    1.92422 196 189 173
  0.233714 -0.0745021    1.80692 158 150 131
 -0.356804 -0.0956508    2.01598 76 66 54
-0.125185 0.0453519   1.92223 197 190 174
0.0592529  0.295061   1.74218 111 90 43
-0.281237  0.299246   1.87252 101 94 75
-0.280486  0.253516   1.89087 117 109 90
 -0.3476 0.165001  1.97028 86 73 56
-0.145158  -0.10251   1.96611 63 50 33
0.078293 0.347309  1.73441 96 84 68
  0.105722 -0.0494839    1.87541 36 27 12
 0.147804 0.0435988   1.84337 161 153 134
-0.366319 -0.135295   2.02655 115 114 119
-0.192942  0.287918   1.83727 113 104 87
-0.0533457   0.273565    1.79835 160 151 134
 -0.198364 -0.0993254    1.98801 50 39 21
-0.357898 0.0188739   1.99566 139 140 145
  -0.27619 -0.0774753    2.01699 180 156 118
-0.145923  -0.11839   1.96825 49 38 20
  0.287703 -0.0358693    1.80654 31 24 16
-0.332264  0.065968   1.99499 155 144 126
 -0.342335 -0.0292151    2.02829 164 156 133
-0.246049 -0.157519     2.013 182 176 160
0.0702933  0.263167   1.75659 19 12 4
 -0.256857 0.00384538    1.97718 116 108 87
-0.184683 -0.397644    2.0334 111 84 37
 0.214207 -0.273725   1.90657 161 154 138
0.0459113  -0.21756   1.91665 150 139 117
 0.291831 -0.149376   1.82651 134 136 133
 0.24857 0.164116  1.71979 86 69 41
-0.188621  0.204484   1.86862 132 119 100
0.151831 0.287971  1.72442 86 74 58
 -0.13426 0.0592857   1.92363 200 194 180
 0.292744 -0.193665   1.83486 131 131 119
-0.173974  0.212613   1.85654 167 159 140
-0.201238  0.173452   1.94185 210 204 190
-0.0501556   0.208029    1.80899 118 107 87
 0.253896 -0.153858   1.80892 158 149 132
-0.173348 -0.149108   1.95551 201 194 178
-0.390918 0.0740232   1.98292 169 158 140
-0.137585 0.0122533    1.9354 190 181 164
-0.280951 -0.296928   2.09525 185 178 162
-0.0661353   0.209553    1.81742 108 95 76
0.220099 0.196418  1.71587 97 88 73
-0.138127 0.0481437   1.92509 134 113 50
 0.0984015 -0.0213373    1.86313 171 163 144
0.0497039 -0.123709   1.87931 183 176 160
0.0150339  0.266041   1.77753 143 135 116
 -0.142365 -0.0184191    1.94498 60 48 32
-0.229935 -0.158503   2.00129 156 148 129
-0.424794   0.15275   2.02743 2 0 1
-0.352042 -0.120262   2.03147 92 81 61
0.0770177  0.282208   1.75197 121 110 92
0.0562348  -0.17194   1.88447 189 182 166
 -0.372241 -0.0603714     2.0161 168 160 141
-0.0488142   0.019488    1.91824 207 201 187
 -0.165342 0.00999455    1.91916 212 208 196
  0.204608 -0.0603985    1.83874 110 114 123
-0.0645255   0.229162     1.8148 203 197 183
 0.286003 -0.176804    1.8334 41 31 22
-0.165762 -0.102572   1.94609 210 202 189
-0.313822 -0.105362   2.02707 41 29 13
-0.267039  0.146951    1.9533 164 156 137
0.186517 0.201887   1.7298 130 118 102
-0.420013 -0.065578   2.06314 158 151 133
-0.35277 0.171082  1.96278 187 158 78
-0.208163 -0.234299   2.05167 210 206 195
-0.183483  0.213556   1.86087 170 162 143
-0.402947  0.059183   2.02276 159 151 132
 0.131914 -0.404416   1.98113 181 159 73
 -0.15703 -0.088347   1.95926 149 138 118
0.0720083 -0.173875    1.8833 199 192 176
 0.130278 -0.443271    1.9702 161 158 153
-0.255469  0.360058   1.87214 111 111 103
-0.200941 -0.158449   1.96697 186 177 160
-0.162079  0.205343   1.86132 186 174 158
-0.418836 0.0160562   2.04511 153 145 126
 -0.350595 -0.0446699    2.02901 185 177 156
-0.259039 0.0730306   1.97935 170 162 143
-0.180019  0.184725   1.86948 179 170 153
 -0.363969 0.00475946    1.98784 145 112 77
-0.135558 0.0359211   1.92921 199 156 111
0.0542343  0.173192   1.77958 139 128 110
-0.365615  0.211952   1.92975 124 113 95
  0.0984552 -0.00467359     1.86051 170 162 143
-0.218847  0.381576    1.8433 76 63 47
 0.244708 0.0919533   1.74361 107 98 83
-0.209975  0.391888   1.83186 84 58 25
 0.293423 -0.156761   1.82833 55 56 60
-0.0553732  0.0205366    1.92033 220 178 130
-0.394567 0.0227367   1.98952 118 107 89
 0.286539 -0.142684   1.83755 12 5 0
0.0391303 -0.132458   1.88481 130 117 100
-0.0485971    0.26815    1.80101 11 1 0
0.0182553  0.396437   1.76975 109 98 80
-0.31517 0.147248    1.986 139 128 108
  -0.29798 -0.0122981    2.01177 49 38 18
 -0.329937 -0.0861234    2.02618 172 165 147
-0.268087 0.0508843   1.97475 176 168 149
 0.249933 0.0441233   1.76122 135 127 108
-0.111171  0.122289   1.92771 7 2 0
-0.338334 0.0935163   1.98822 158 147 129
-0.180621    0.4122   1.79783 56 48 37
-0.317297  0.168133   1.98588 170 162 143
 -0.333031 -0.0930514      2.038 64 55 38
-0.0394368  0.0188231    1.90819 208 198 186
 0.154374 0.0620595   1.83724 160 152 133
-0.269905  0.250988   1.88435 163 154 139
 -0.372499 -0.0716544    2.01916 163 152 134
-0.158213 -0.390766   2.04324 120 98 57
-0.188707 -0.147676   1.96208 195 186 169
-0.00345708    0.173932     1.87395 175 168 150
-0.399499 0.0225799    1.9979 84 75 58
-0.243754  0.378005   1.86499 69 57 43
0.129225 -0.28591  1.97019 0 1 0
-0.25775 0.343208  1.85878 86 73 57
0.024617 0.389411  1.75519 44 32 20
-0.232876    0.3673    1.8481 78 66 50
-0.394272 0.0101695   1.99354 156 145 127
-0.416437 0.0608053   2.03649 159 147 131
0.0211145  0.399607   1.76219 56 44 30
-0.137979  0.239977   1.83769 44 31 15
0.101114 -0.13984  1.89584 59 47 25
-0.17519 0.414587  1.79894 18 9 2
0.0551087 -0.165034   1.88579 101 90 68
 -0.415669 -0.0724514    2.07012 74 62 46
  0.288525 -0.0651739    1.81459 20 13 5
0.0335869  -0.23353   1.95132 218 212 200
-0.280138 -0.170112   2.05821 165 156 139
 -0.192206 -0.0116149    1.92758 207 199 186
-0.171838 -0.463062   2.07015 49 46 29
0.195724 0.121818  1.82193 85 89 100
 -0.19483 -0.166573   1.96466 169 160 143
-0.365212  0.311561   1.90609 5 0 0
-0.324323 -0.238663   2.09238 211 207 196
0.0957067 -0.156044   1.89576 164 153 135
0.0831218  0.355794   1.73214 99 87 71
0.00652543 -0.0213087    1.89523 145 134 114
0.183563 0.217079  1.72722 181 170 150
 -0.256844 -0.0763673    2.00931 215 208 192
-0.00810979   -0.159542     1.92788 180 172 153
0.0245822 -0.130943   1.91564 188 181 165
   0.22367 -0.0619782    1.83074 96 83 66
-0.292536 0.0662257   1.98082 171 160 142
  -0.270554 -0.00429043     1.98354 167 156 136
-0.152919 -0.163048   1.96998 72 59 42
-0.110481  0.112959   1.93425 6 2 3
  0.15383 0.0297483   1.84365 177 169 150
 0.188606 -0.119315     1.871 28 17 0
-0.220464 -0.138771   1.99366 200 191 174
0.113503 -0.11243  1.88656 185 177 158
-0.180271 -0.116529   1.95669 201 193 180
-0.106237 -0.159635    1.9589 131 122 105
0.208834 0.156849  1.73187 154 166 208
 -0.184492 -0.0651735    1.94743 210 202 189
-0.179141  0.291586   1.83541 59 50 35
-0.251433 0.0703394   1.97566 170 162 143
-0.42151 0.134279  2.01907 155 146 129
 0.249228 -0.144703   1.81044 146 137 120
-0.356079  -0.11021   2.03147 45 36 19
 -0.173331 -0.0508038    1.93954 215 207 194
-0.243779  0.189329   1.95505 172 161 141
-0.364674  0.260277   1.91703 20 19 14
-0.143586  0.246199   1.84006 155 142 125
 -0.219446 -0.0627852    1.99455 97 87 62
-0.394105 -0.140863   2.04228 252 252 250
-0.220603 0.0607374   1.95105 157 146 126
-0.0930487    0.34582    1.81314 93 80 61
 -0.21325 0.0611183   1.94846 179 170 153
  0.2255 0.155172  1.73077 110 98 82
-0.388261  0.259677   1.91284 145 136 119
0.0897168  0.226812   1.76417 5 1 2
 0.027319 0.0624929   1.87695 222 216 204
 -0.184942 -0.0573982    1.94505 209 201 188
-0.281747   0.13913   1.99033 46 34 20
-0.327731  0.135106   1.98729 101 88 69
-0.214661 0.0097576   1.96184 172 160 144
-0.386171  0.234837   1.93423 102 93 76
 0.122876 -0.108415   1.88835 221 214 206
 -0.414342 -0.0619028    2.06709 77 65 49
-0.110797  0.135239   1.92259 213 207 195
  -0.179564 -0.00853473     1.92499 135 124 104
-0.171336  0.246736   1.84637 27 14 5
-0.249951 0.0907098   1.96955 124 113 93
  -0.312227 9.71822e-05     1.99694 150 139 117
-0.0730539  -0.157423    1.94484 155 144 126
0.0572616 -0.183649   1.88479 149 140 123
 0.140226 -0.170275   1.87507 166 155 135
-0.27055  0.36831  1.87727 92 80 66
-0.400405 -0.124145   2.03112 146 135 117
-0.265956  0.377138   1.87928 89 80 65
  0.19286 -0.445636   1.95042 156 132 94
-0.266049 -0.109116   2.01499 176 168 149
-0.188792 -0.109489   1.95474 183 195 235
-0.301731 0.0246176   1.98993 126 115 95
 0.210089 -0.165184   1.85719 147 136 114
-0.292749  0.101994   1.97431 156 157 159
 0.126958 -0.110508   1.88478 123 111 89
 0.101582 0.0218107   1.85695 179 171 152
 -0.173325 -0.0616219    1.94394 210 204 190
-0.140721 0.0347799      1.93 80 47 12
0.127138 0.260039  1.74155 39 32 22
 -0.354866 0.00479136    2.00662 77 66 46
-0.359724  0.207234   1.93105 105 92 73
 0.179297 -0.174646   1.86427 169 159 134
 0.288183 -0.149194   1.83465 47 39 26
 -0.256607 -0.0562259    2.00492 199 199 199
 0.156952 -0.104189   1.86699 213 208 189
 -0.38485 0.0226445   2.00171 141 130 110
-0.418503 0.0102381   2.04812 156 149 133
-0.259199 0.0653078   1.98269 167 156 136
0.0444271 -0.137383   1.88723 199 192 176
-0.106566 0.0511316   1.93113 169 158 140
-0.203109 0.0830703   1.94076 188 181 165
-0.00401203    0.365192     1.79508 125 112 93
-0.311095 0.0305184   1.98453 159 148 128
-0.265645  0.105739   1.96998 149 138 120
 -0.207254 0.00945183    1.95698 183 175 156
-0.271696 -0.128455   2.01117 170 159 139
-0.190364  0.138968   1.87603 178 170 151
-0.144427 0.0271598   1.93456 48 36 22
-0.410394 0.0284488   2.03693 151 140 122
-0.306201  0.117533   1.98515 189 180 163
 0.223708 -0.149347   1.81886 75 64 46
-0.394227  0.226073   1.92905 133 121 105
-0.107074 -0.135515    1.9578 187 178 163
0.0764158  0.291975   1.74984 107 94 77
 0.0922694 -0.0178186    1.86252 50 41 24
-0.351661  0.205734   1.95806 186 178 159
-0.0541117  0.0801758    1.91836 215 211 199
-0.415562 -0.134605   2.06393 137 128 111
-0.246167 0.0140137   1.96973 182 174 155
 -0.323779 -0.0871854    2.02843 35 22 3
-0.265723  0.151811   1.96031 172 161 143
-0.265157  0.298897   1.87083 88 78 68
0.194253  0.21182  1.73181 89 80 65
-0.305766 0.0248367   1.99147 115 115 113
 0.252811 0.0794135   1.75346 133 124 109
-0.271467  0.358083   1.88164 111 99 85
0.127669 -0.43838  1.97192 181 149 98
-0.283868  0.272148   1.88585 51 38 21
-0.269524  0.122539   1.96127 167 156 138
-0.100718  0.160533   1.91521 22 12 2
-0.0292868  -0.142081    1.93322 177 143 95
-0.0891758 0.00763414    1.91902 210 203 187
-0.164556  0.292975   1.82365 114 107 89
  0.12831 -0.291613   1.96882 87 83 74
-0.260564 -0.034365   2.00232 186 177 160
-0.137337 -0.112664   1.96295 88 77 57
-0.289296 0.0233722   1.98539 131 120 100
 0.302387 0.0282527   1.78638 78 74 63
  0.17097 0.0103646   1.83082 148 136 114
-0.168003  0.194127   1.85976 36 24 8
-0.260657  0.140527   1.95965 62 49 30
 0.102684 -0.108632   1.89761 34 23 3
  0.291826 -0.0732099    1.81529 120 114 100
 0.231164 -0.135021   1.82325 176 168 149
-0.191679  0.313886   1.82703 99 86 67
0.0131402 0.0148291   1.88724 204 197 181
-0.140269  -0.13354   1.96785 193 185 166
0.0463661  -0.14426   1.88976 136 125 105
 0.222651 0.0167983   1.77854 78 67 49
 0.171845 -0.174175   1.86883 164 153 131
-0.0468098  -0.160384    1.93708 145 134 114
-0.169669 -0.163588   1.95751 60 51 34
-0.341742  0.117386   1.98297 70 58 42
0.150494 -0.17222  1.87449 165 154 132
 0.0393728 -0.0165179    1.85578 127 116 96
-0.102489   0.15019   1.91643 210 202 189
-0.322862 -0.179871   2.08038 228 222 210
 0.210147 -0.064623   1.83741 255 253 244
 0.189475 0.0649805    1.8217 122 111 91
-0.329636 -0.139693   2.02944 35 28 10
 -0.325645 -0.0420094     2.0272 151 143 122
-0.111196  0.117495   1.92727 185 177 164
0.148713 -0.32009  1.94118 199 192 176
 0.146336 -0.348385   1.94519 203 196 180
-0.221905 -0.123582   1.99552 187 178 161
0.140597 0.254872  1.73494 99 90 75
-0.429795  0.153149   2.03685 103 96 86
-0.403833 -0.124441   2.04142 59 47 31
 0.145631 -0.342299    1.9412 208 200 187
0.00905866    0.39694    1.78394 59 46 30
0.124201 0.348163  1.74871 69 35 8
  0.152908 -0.0546573    1.85351 167 159 140
 0.222225 0.0637842    1.8087 188 180 161
0.0651376 -0.187329   1.88196 185 176 159
 0.143396 -0.138392   1.87628 199 192 176
 0.122141 -0.439425   1.98044 218 187 123
-0.268002  0.380621   1.88747 44 34 22
 0.247817 -0.117897   1.80602 155 146 129
-0.337681 -0.139072   2.03455 28 21 5
 0.142814 0.0237603   1.84892 178 167 149
 -0.350829 0.00177338    2.01144 232 232 224
  0.14779 -0.298278   1.93283 207 201 189
 0.145949 -0.324398   1.93713 207 201 187
0.172776 0.337416  1.74829 74 50 24
-0.262128 -0.147986   2.01086 48 37 17
0.00437109    0.36916    1.77514 124 111 94
-0.237074 -0.151226   2.00395 46 33 14
 -0.30373 -0.143847   2.02702 43 34 19
 -0.33441 -0.130197   2.02398 73 60 43
-0.345809 0.0267237   2.00603 38 28 16
 0.183131 -0.442762   1.96563 214 183 118
0.240121 0.152652  1.72188 115 118 107
-0.396168 0.0302351   2.02234 149 136 119
   -0.170335 -0.000299093      1.92145 198 189 174
-0.00544926    0.391633     1.80842 66 53 34
-0.423985 -0.073859   2.06389 158 150 131
-0.279008 -0.146337   2.01677 47 35 19
 0.142192 -0.188994   1.87787 43 31 9
 -0.404476 -0.0622495    2.05124 77 65 49
-0.254081 0.0158452    1.9721 154 145 130
 -0.287464 -0.0671799    2.01678 210 201 184
  -0.42878 -0.0746616    2.06664 140 133 117
-0.225428  0.012207   1.96541 190 181 164
  0.19528 -0.144187   1.85608 207 200 181
